-36.882811802945255 -5.104469213071391 8.81819864552822
-36.21886004611625 -4.012203640238538 7.724494460675594
-36.1901148299012 -4.00330314309796 7.710525162507828
-36.76070844081616 -0.7886876682399597 7.827909198085855
-36.94212961920168 -2.4008437886449823 8.49905051418699
-34.96117118214085 -2.373766357404124 4.158137370990815
-42.68483990499645 -3.075588341682688 11.19710041913683
-33.32508757511248 -0.407277703681892 5.538999422396074
-38.51184778980007 -5.378288197071786 3.441370025939989
-39.99971491884842 -4.117711829944534 10.163990340802869
-33.365560116184724 -0.3824530191188975 5.0556092869129685
-36.17153650027244 -3.575681856608986 6.9749935154182126
-36.14967038888229 -3.3521066989480186 6.677765898480921
-42.065319569995495 -5.029195099844361 20.21322285090252
-42.065319569995495 -5.029195099844361 20.21322285090252
-37.351593350569004 -3.437117384523601 4.580230313011874
-35.87896979650414 -2.37941504733855 7.319123719979402
-36.46370539423745 -2.322598413486679 7.75144914580045
-36.308796615008426 -2.2417042674510768 6.885663706176324
-36.409360482864116 -1.8502232239880883 7.267713008384
-36.631263691542344 -3.6088458721790415 8.331793873737908
-36.31216640512868 -3.7386638862139865 7.8525300154615465
-39.46718741770832 -5.660694557745746 9.922762736629537
-33.263836620599285 -0.9245497254829402 5.333949628072588
-33.476015002884274 -0.544042478421086 4.823917881131138
-39.99971491884842 -4.117711829944534 10.163990340802869
-33.145686025167144 -0.782098370306052 5.209613563917969
-36.364257503061 -2.361527625223899 6.2690861604232495
-42.96560819594307 -4.011209494834222 19.675152634809862
-39.0015744090185 -3.620577560062804 1.6883839781842056
-36.21886004611625 -4.012203640238538 7.724494460675594
-36.1901148299012 -4.00330314309796 7.710525162507828
-36.76070844081616 -0.7886876682399597 7.827909198085855
-37.04341135638571 -4.584721395974881 8.778629391556734
-33.43130454713308 -0.6438498353159625 4.898506645802172
-37.80614999988294 -5.743597710628093 9.395716884348339
-36.75887950889668 -3.7404586615363673 8.470260326484897
-36.34372063299232 -3.1370675028621813 7.738938172092105
-36.60655178193408 -5.8964724136776905 5.584410115881958
-36.50993522830499 -5.86956688600458 5.805379021735369
-31.735772881515118 -1.8354481382746988 4.7356223708608525
-34.19291957606225 -0.17345422506217112 17.7503359444201
-43.61943481811182 -4.2568657224660615 19.329097699685285
-42.110787268864144 -7.0006542763145845 19.893131569339083
-33.50264095946424 -0.9489649290571265 4.607921136699169
-38.81264445337739 -3.428885312617231 1.8043625458629151
-33.93950371828956 -1.7798653053547486 3.9919470767610363
-34.16602660422133 -2.1586582677408384 3.9831317315598227
-33.145686025167144 -0.782098370306052 5.209613563917969
-38.750406796528054 -6.707648793335397 1.7203363335388602
-33.616874242154765 -0.5583010889438995 4.462031681644348
-33.616874242154765 -0.5583010889438995 4.462031681644348
-43.947837321792406 -5.320744399492389 18.75846769642088
-33.36709697069415 -0.4942785734212265 5.044824781291084
-33.36709697069415 -0.4942785734212265 5.044824781291084
-37.82441312069422 -6.723143681437703 9.5278141927839
-42.78435524544037 -8.644058825969596 19.69107216393158
-36.48508882481117 0.38336887206328996 17.306523151284296
-36.48151406579271 -5.472358095820639 8.529342113065177
-38.04513557118092 -5.702494541307889 9.527269385310667
-36.49236908186393 -2.2415092235798992 7.7372524412212655
-36.474567965772025 -2.3916075442900846 7.782142508086324
-36.47604588659888 -2.2332432456118427 7.7309500412270395
-33.63534874439992 -0.5073888203566908 5.879726474493879
-36.49520225583278 -5.681128687518248 8.616305066283019
-33.291094673338826 -0.4474373229175903 5.263167287135126
-40.09662326359991 -1.6679563781562656 20.318055405929194
-33.8598295952634 -1.2553794378162282 3.9640434602632695
-43.61943481811182 -4.2568657224660615 19.329097699685285
-36.50098509475009 -2.2789083345406436 7.773631673047447
-36.57116971824834 -2.479087583489111 7.9474752978896674
-36.58154353201633 -2.481051934448744 7.94790126460186
-37.240365774702326 -3.105120881462325 8.71298741563335
-38.12693115161023 -6.291512779824513 9.665177209665984
-36.41981482957437 -4.785515930929133 8.390638932444958
-38.90527778612501 -7.333545220285338 0.8864184462870028
-33.62943986395675 -0.8046752449613503 5.8354330509192
-36.7275866580256 -3.7258444197760214 8.466078168767154
-36.62089237956984 -4.691094146356877 8.539853848833673
-36.49476781891667 -6.0090995922650166 5.787948927145855
-36.95916279170011 -6.056533519147024 9.001714675728401
-36.820812332330874 -3.2338493912991177 5.580771706243283
-36.323948850317244 -3.552446268632006 8.070812494370237
-36.257105821605975 -5.726318658163782 8.268893367414684
-36.11431695555699 -3.858669382772332 7.0377467005059415
-36.69519073932864 -5.482708450342244 5.46247186750584
-44.43170448712112 -3.836230191582386 18.59218330595605
-37.238423928844306 -0.926912281933526 16.884956478692608
-36.793442360137504 -5.7392373070978895 8.791608919434836
-39.69447502345573 -2.974373125741889 9.827062397579681
-39.80330315171875 -7.542470643119185 21.140740636998544
-39.76665536214535 -7.5207103214300215 21.105440224038283
-39.0583139783089 -6.817784778741483 1.210724717658529
-40.02405039581869 -5.538189098622725 10.220367184425427
-40.02124371381089 -5.537314319216637 10.220268310262547
-40.08268944952326 -2.063783565495145 20.36716093738167
-38.82668983697402 -3.4278521472463126 1.9999369011449346
-52.45248780390948 -6.25327106111265 16.98412234993745
-36.63641274203446 -3.3076523494042105 8.24403988875573
-36.44883479156189 -3.489475961547731 8.032764739782714
-35.85145307717341 -0.5359318679406373 6.582500068381393
-37.157542758667745 -2.2752395696465193 4.953860673441781
-36.79612418515008 -5.03275040355628 5.406604993975726
-33.746671649650565 -1.7588064774670906 4.585830098046877
-36.78922526391782 -4.052927420089121 8.507561387219283
-36.83935301855367 -4.317603120340578 8.644866527223115
-40.04453254153885 -1.9404846817521157 20.46131702381369
-36.74233035556439 -2.8516714945634716 8.278300799500037
-37.90566571058925 -3.810094368321222 9.191466883726342
-33.5385873650006 -1.2083807953798003 4.5051254170511115
-33.5385873650006 -1.2083807953798003 4.5051254170511115
-36.187181580686726 -3.5411551272072526 7.423993260537628
-36.28776677893511 -2.216048890090578 7.230038234104029
-38.35842585377681 -0.21508264620386974 16.396992363603978
-36.46723257488059 -5.742177161286659 8.586601882374879
-37.54959311464184 -3.2160768690428228 8.973351628094015
-36.23381052563464 -5.539285828357917 8.20444355882207
-36.417568524657796 -3.7225436930402607 8.043202975054427
-39.90184084984154 -1.6752064862923017 20.89745344556799
-36.25481398820057 -2.977910487369641 7.338190930194038
-36.5645443894459 -4.683747458768926 8.474940434607717
-36.38062549694496 -4.506345310840823 8.173914905128314
-43.61943481811182 -4.2568657224660615 19.329097699685285
-36.27333020316722 -3.612319951336209 7.720685076546097
-36.511919432609574 -1.6556365970633458 7.556990448918228
-36.27866351422193 -2.600677876404191 7.08308142496513
-36.52928157009486 -6.238290695476357 5.8029163637475065
-36.229470641113615 -2.8492008830654507 6.8578204088528665
-37.10140997526035 -2.7205032405983633 5.043837444670018
-36.51481903136704 -5.006480697423683 8.486798078354958
-38.64865235487753 -1.4861996905514943 9.412507541403784
-36.14090420424881 -4.817019155558533 7.806891578737947
-36.28887939038262 -4.093668270253726 7.909237702036876
-37.615148568833774 -6.377552091552052 3.8001095344530285
-43.14264171557866 -0.9652130146964772 12.140047213675658
-36.59824823590505 -3.5731250677797863 8.291852603550275
-36.967480955694555 -2.460728207513305 5.440738218098915
-38.10279703823593 -3.6596497787952966 9.23900076978613
-37.00895509977157 -1.4480520866839042 8.29973371800898
-36.48002106877401 -4.0482555777274865 8.23938053685493
-36.62874003409673 -3.6107682921964432 8.26921119535141
-36.64717562284663 -4.85241345419289 8.583283320477442
-37.91786932431505 -3.74573724206743 9.207046447776563
-36.63805108037693 -4.743839388081194 8.509264723731505
-36.322064440878364 -3.5202711899089305 7.802685578103734
-37.930609562902944 -3.2701062509112733 9.11647793895444
-35.134335543024534 -2.5741905025953855 3.990664915839652
-37.862920468333776 -4.080920897073485 9.14753144156088
-40.20662088585464 -4.146402325337911 10.257952975411975
-35.274735968556605 0.09538685489484955 17.1320871262283
-36.31028952016691 -2.237249112133391 6.991309458642895
-36.316325029486826 -2.3994573575220546 7.328719392667992
-36.33880435032468 -2.400468363086997 7.334175645911884
-38.03751801568082 -6.559078068101253 3.012350741449815
-33.933372160075436 -0.8214593857064152 6.038196607383128
-33.19329319612351 -1.0074915178429293 5.38999118244552
-33.74372059411198 -0.7703778807875734 5.928953375144729
-33.47034399219129 -0.3918282978998615 4.826426811626668
-36.71947652186394 -4.31559132866081 8.534546511829433
-38.93882718574683 -3.387689697014582 1.5381091147137695
-37.658896772137254 -5.3239547087907395 3.8389498338845414
-36.5614580096552 -5.442285709547413 8.580195550134306
-33.933372160075436 -0.8214593857064152 6.038196607383128
-36.425053017116284 -0.04531891942564936 17.444728708228865
-43.424346177117975 -4.063461641371296 19.52199170699202
-36.78888396496866 -2.806360870567552 8.351129379944155
-36.59743490347339 -4.790738492363525 8.521447868350677
-36.78888396496866 -2.806360870567552 8.351129379944155
-36.59743490347339 -4.790738492363525 8.521447868350677
-48.21598848725078 -3.8161105085421765 15.02440689752315
-36.98170532544549 -2.012526371199985 5.39344411412749
-43.10145723293488 -1.5714592086743382 11.49226276875801
-44.43170448712112 -3.836230191582386 18.59218330595605
-36.228884478331324 -3.980636755653464 7.751827921141938
-37.3996385320024 -0.11518542400253828 16.567131049025804
-38.64439169155905 -5.934157451975845 2.0155590036172697
-36.42185383420105 -1.3787169825493608 7.112614314014635
-36.454707870011745 -1.312982825465924 7.191578103927789
-47.87301749906196 -3.6718757692994535 14.242891511974719
-36.37909501987653 -2.7353848386780317 4.4892305913346675
-36.37909501987653 -2.7353848386780317 4.4892305913346675
-35.5406225071843 -2.3689133042062824 3.1737076437109337
-38.10279703823593 -3.6596497787952966 9.23900076978613
-37.00895509977157 -1.4480520866839042 8.29973371800898
-36.48002106877401 -4.0482555777274865 8.23938053685493
-36.62874003409673 -3.6107682921964432 8.26921119535141
-36.64717562284663 -4.85241345419289 8.583283320477442
-37.91786932431505 -3.74573724206743 9.207046447776563
-36.63805108037693 -4.743839388081194 8.509264723731505
-33.127681599992506 -0.1437730031732496 4.938321913319051
-36.006331246075206 -5.361928431579974 7.598199400549788
-36.95312978621167 -3.397279812847195 5.294294586536928
-36.253391562577136 -4.190386799672638 7.924152145682285
-33.50232959880076 -1.3519103955673044 4.716810951404334
-36.689905845434225 -5.585939750384033 8.745037237793035
-34.354956899516274 -2.156534716580241 4.191071935790127
-37.838127701507084 -3.165224072191183 3.6393488721397205
-36.9576648018221 -3.0994696396445827 5.296938652660451
-37.58405315685823 -5.6870994214859 4.008458481744334
-37.25121643095463 -2.1199307436564334 5.057788693637207
-33.13646995586314 -0.6660719625960256 5.411430063116363
-40.27144271070911 -4.8073566175852065 10.322668641079062
-44.22668384190073 -3.864835790065869 18.7456592351992
-36.3153096275947 -2.426211768483631 7.30290465949335
-33.21030989873938 -0.7719415295811523 5.4947723903917165
-38.69884928677023 -3.7738300013112696 21.387240579031143
-33.51148468025332 -0.2025889809086161 4.757050030006127
-43.07781186179667 -4.192574851224901 19.56636854673254
-42.298368457624036 -3.868752451183096 19.96346452279444
-36.344435869058515 -5.144434719182451 8.271937383057328
-36.636210987057524 -2.317085492055204 7.9689563024740835
-36.71738355266306 -2.3218036319753947 8.142338391983102
-37.4253593838132 -5.175675082842919 4.429842883512016
-37.04341135638571 -4.584721395974881 8.778629391556734
-34.79784436683465 -1.504265895122228 5.426905914481793
-36.25448061527773 -2.921046384334147 7.293580986302736
-36.4794669571501 -4.760196871115129 8.34138581787603
-36.307105663772816 -4.9380289235589565 8.291166683228653
-36.31626274269296 -5.455055320607091 8.348998443357445
-33.85931251753679 -1.2150947856792538 3.9543076704145435
-38.15736953462759 -0.4804159031669766 15.885808248263764
-36.65989838614994 -2.5771215029641397 8.179604333450655
-36.23621305676805 -2.9510848843079396 7.27507961075279
-36.481241186728646 -2.098639559409526 7.703527050924585
-36.50751910871307 -0.624201354622131 7.062368510650046
-36.19987211143902 -2.9766392893286584 6.75759903577417
-36.28887939038262 -4.093668270253726 7.909237702036876
-36.41981482957437 -4.785515930929133 8.390638932444958
-36.589165034798064 -4.964937466434496 5.557804461179252
-38.86248502260962 -1.483782883674495 9.474324696095444
-36.24814852133031 -4.032660007641338 7.837204916624231
-36.80521171907898 -5.109889336349081 8.758136834962329
-36.27333020316722 -3.612319951336209 7.720685076546097
-36.50735053097597 -0.734887100206592 17.310207821689964
-36.50735053097597 -0.734887100206592 17.310207821689964
-39.211640058565635 -3.562324752697803 1.4199608934745882
-33.647156254329985 -0.8660783698743879 5.939222292444661
-36.307875772118635 0.07782053715379078 17.290375346596093
-37.130054609398464 -3.0668489328673 4.895956731899815
-42.00533228748158 -4.182246321116624 2.0722617749858543
-36.31626274269296 -5.455055320607091 8.348998443357445
-52.787152905151 -2.811199214382195 16.770005980403305
-37.34203327702424 -6.327570912940011 4.2228006291150635
-33.41487912785995 -0.3896900596810724 4.962693477034719
-33.410742675074765 -0.4859796314894673 4.92309877825776
-36.81090803449894 -3.3311628243123366 5.563774363150273
-33.795690986238206 -0.7111609821429967 5.927010566238593
-36.56348355484218 -5.898925062222816 5.623712446136764
-38.99465439639812 -3.8398269580456095 21.238338758008126
-36.37497870969578 -2.361202798891994 7.387340929826152
-36.49621020993799 -1.573332697499862 7.497746027832818
-37.29515110346824 -0.7646912694692674 8.42464277637201
-43.07781186179667 -4.192574851224901 19.56636854673254
-42.298368457624036 -3.868752451183096 19.96346452279444
-39.6965951757489 -2.897923032259193 21.113572821769573
-38.66091923432219 -4.400484348226755 21.696945171769016
-36.11416108996637 -4.2678905466592845 7.490162539269193
-36.11416108996637 -4.2678905466592845 7.490162539269193
-39.211965119592094 -2.4925999427209566 21.082915280235014
-39.211965119592094 -2.4925999427209566 21.082915280235014
-36.44923207372801 -1.96124641460308 7.558061644790449
-36.3191717675889 -2.390127802792633 7.381608069480684
-36.560926960931226 -0.6581455811577062 7.414309814082834
-36.44937593649537 -0.984719869186442 7.095875123274226
-36.61238639663627 -0.5961435071272598 7.490541437490897
-36.302141767734156 -4.384450204468451 8.006048487677397
-36.90898164731578 -2.69310482000259 5.6496175589403705
-35.98506587505972 -5.8240263857572945 7.833258077107978
-37.20162560852074 -1.797789854453348 8.48069069601074
-36.809281746380776 -2.3256847139000953 8.201981056091192
-36.4197876598908 -0.977469848796809 6.637153417748003
-36.942121306197244 -5.663658747300847 5.0373941770955
-37.59579506586135 -5.65787009976686 3.96110818605284
-43.424346177117975 -4.063461641371296 19.52199170699202
-36.78969478157164 -1.0126626828040761 7.926094927463993
-44.25275528715895 -4.290669694048713 18.798520983769407
-36.364257503061 -2.361527625223899 6.2690861604232495
-42.96560819594307 -4.011209494834222 19.675152634809862
-36.562230586397234 -3.6550266162566194 8.258228584873805
-35.0258826219349 -2.1900433831313117 4.190161020591994
-40.568586249280365 -3.8192976986058405 2.5011235857048106
-37.16904668421306 -3.082542518980026 8.70714985356586
-43.11630067951983 -5.22744455014446 19.709889857620055
-33.28533416310378 -0.93791390299348 5.501938967541278
-44.153142605216516 -5.317011306159651 18.748691487531843
-44.035498277785855 -5.812673576434257 18.773809241156435
-37.45531787366923 -5.967900791237616 9.253595255776403
-33.36709697069415 -0.4942785734212265 5.044824781291084
-33.36709697069415 -0.4942785734212265 5.044824781291084
-36.35284154001613 -3.172236493044074 7.7411929488504185
-38.750406796528054 -6.707648793335397 1.7203363335388602
-38.83769431120671 -6.630079535532158 1.4849087453358436
-36.085347227632916 -5.11644634152084 7.747037104049767
-36.94166342822129 -4.19004600331512 8.744355234659828
-38.02699356060289 -3.6974642636207937 9.245665010049514
-36.82240733725461 -4.864725856798982 8.705049258209662
-38.85423233350493 -1.2670777049464776 9.300999751931819
-42.61951815138127 -3.727577100133085 19.40220444619863
-38.69884928677023 -3.7738300013112696 21.387240579031143
-44.21084473465173 -4.62632046185692 19.06536237781456
-34.96117118214085 -2.373766357404124 4.158137370990815
-37.92047169432791 -5.370302599393212 3.4643795760273832
-33.147715564577815 -0.5892340577423569 5.479114759088375
-33.15636143310049 -0.6077812410858536 5.241111375441271
-36.594854425768354 -2.0422260903921607 7.917345100890486
-39.89320538934646 -3.672267585775055 21.161154059539456
-37.351593350569004 -3.437117384523601 4.580230313011874
-34.12406995193649 -2.2428789918817325 3.95942578544102
-42.53229558535485 -5.24346368270774 19.92153134568244
-40.62926245162103 -6.365433795956109 10.891021516719384
-33.737381335108296 -1.1337523348790608 4.242486436631545
-33.17032143874943 -0.9681195259418756 5.384337935215463
-36.287683164156604 -4.069192552107342 7.962861406195273
-36.22988493141241 -5.240090195909013 8.125101593528441
-39.711478090143956 -2.975521122057093 9.778073730430194
-44.02520807802675 -5.352516264338472 18.796973261160254
-34.79784436683465 -1.504265895122228 5.426905914481793
-33.46785676909293 -0.7727538879872045 5.834211573579189
-40.56457933679279 -6.774289302872316 20.779202230085595
-42.85741400097125 -4.626408445520106 11.758827888726465
-36.41981482957437 -4.785515930929133 8.390638932444958
-46.28328078695548 -5.883423573525366 13.563130397919707
-36.685187094193836 -4.164750681737257 8.438519024296646
-36.37909501987653 -2.7353848386780317 4.4892305913346675
-36.37909501987653 -2.7353848386780317 4.4892305913346675
-36.21276528718019 -3.1426010848181303 6.661897898408554
-36.91487009000054 -4.802801593194122 8.855814675722257
-33.476015002884274 -0.544042478421086 4.823917881131138
-36.44964127630045 -6.227215431889627 5.83490349419835
-44.47253402557135 -2.274495870858023 18.869785035055735
-36.13905754847654 -4.994376460034804 7.89773527460531
-37.31662933769414 -2.4996750706710573 8.698366891444422
-36.253391562577136 -4.190386799672638 7.924152145682285
-39.022056602762646 -5.568516887098637 1.2047244313605319
-39.753373233326954 -2.969531840558295 20.948892877788538
-36.22918647691787 -3.662294498224652 7.530908579914218
-37.2945713856934 -3.769426521498926 4.590672119574698
-44.28733400754723 -5.5394012461694135 18.81894272235806
-43.61943481811182 -4.2568657224660615 19.329097699685285
-40.04526523541848 -1.745340633226383 20.428614085342495
-43.02306882668101 -1.5894389309150547 11.45506007288138
-37.44706787399727 -5.565438019429372 9.149679199307464
-36.35659658375246 -5.214771156605824 8.304453160573416
-36.9843927161663 -2.8896311170713176 4.897637081158152
-44.27257526263955 -3.8931411416515367 19.072757024687036
-34.37963507004401 -1.028621763641377 3.009420421156392
-41.36468142877708 -3.7175768778556293 20.445317635280688
-41.02802279264828 -3.8980450808797222 20.474073894359243
-41.02802279264828 -3.8980450808797222 20.474073894359243
-36.47400180791662 -1.4693209597686678 7.449819632431982
-43.677392884112976 -4.777842987217684 19.38456630162929
-33.54483693748603 -0.7090385767100642 4.631586572530651
-36.686763957233524 -5.357121753935962 8.702531100093637
-36.34572736342207 -2.5414986340463175 7.472429175964045
-36.857071147946826 -3.9841341523644163 8.603019582019726
-39.711478090143956 -2.975521122057093 9.778073730430194
-36.96449696845473 -2.1411544417212856 5.388886864725514
-36.4197876598908 -0.977469848796809 6.637153417748003
-43.48023661955269 -2.140361103517902 19.21768292584386
-36.456112833980285 -4.493763958396345 8.395373656827473
-42.066530628431266 -8.54366979981842 3.3793095383134073
-40.009315566827425 -7.4328360506630435 10.926211536128875
-36.48513677256988 0.296252994538575 17.416108583707278
-36.29399597517363 0.0601634386886829 17.016504210939992
-33.440321967351714 -0.8728118636050963 4.695823191821631
-45.293021616827524 -4.965926904120067 19.179536108733473
-36.77168122266208 -3.0684457883826513 8.368398233676913
-37.00088458118925 -2.770925700256588 8.523241570319755
-37.00088458118925 -2.770925700256588 8.523241570319755
-36.53820273780013 -2.039023058392643 7.7718362280948625
-36.4485299721753 -3.6317951457497903 8.166447808690677
-37.12464739792864 -2.3077681445814866 8.553684432296393
-40.092997970445836 -4.202986217385778 10.17059599873837
-37.682496763677705 -6.4291608769545885 3.696332797401311
-39.009605593370004 -2.3176284001504106 9.264123049806834
-37.53132719452078 -6.189414339231821 4.545623895869937
-36.87020351231363 -0.485275759665174 7.874090892791791
-36.58649420987936 -0.654856369458015 7.413360490756389
-39.89320538934646 -3.672267585775055 21.161154059539456
-33.71526536963302 -0.8406007960887081 5.926332282535135
-38.152948227964956 -5.885646336764588 3.0557294575606306
-33.94856439580683 -1.4181949609929143 5.1168020253642155
-33.93746976587098 -1.4172231819362207 5.118629094941241
-36.49249617414269 -0.6214976068039029 6.969461849808994
-37.24974668496406 -3.1130889568023576 4.989869416796829
-36.43151374238215 -5.7154883678255155 8.548430110030978
-36.34352833135896 -4.531445773547307 8.124078680792685
-36.34352833135896 -4.531445773547307 8.124078680792685
-36.77168122266208 -3.0684457883826513 8.368398233676913
-36.5528125826213 -1.1459307288169072 7.45984936620453
-36.654947273022394 -2.401898577336212 8.100658943807716
-36.20480761185766 -3.080710160405002 7.054481749584767
-35.97927267124112 -5.042333808059484 7.270672772389268
-36.13948624215294 -3.6006997568025083 6.615046894244365
-37.62945387177383 -5.6530028750966395 4.022877596018034
-36.76480635128134 -0.6279615852475358 7.7832700822795715
-34.83036143704217 -2.280018880009716 2.738661571414724
-42.17976937293028 -5.707813655310644 11.46017709096968
-36.46558072456387 0.17829156691923131 17.47600685089465
-34.463973129412736 -0.43325437116600085 6.045572416085136
-36.86185422641268 -2.8986198863927006 8.412768296631484
-36.53882177448504 -0.6231726833682423 6.588358156812184
-36.625785731020116 -0.7712696088845243 7.591790800566024
-43.73545141791405 -3.0211571033521887 12.75448379822113
-37.31662933769414 -2.4996750706710573 8.698366891444422
-35.5406225071843 -2.3689133042062824 3.1737076437109337
-36.87192688218079 -4.725059969517925 8.697638168525238
-36.38648304485695 -3.7530298427501263 7.993454202235995
-36.69573878223086 -3.123956219749571 8.296634530322144
-33.263836620599285 -0.9245497254829402 5.333949628072588
-36.63193525872218 -4.482271466617214 5.709989620245793
-36.80634673406634 -2.704283928271777 5.674816979515924
-44.81393308463638 -3.435683823794518 18.640912603092772
-33.44920483230861 -0.44686367899434565 4.880389100201413
-33.39801601160816 -0.4761665479920181 4.965211415195846
-39.95358150400614 -2.239345151541202 20.390750841526824
-42.28563586441945 -5.748807823977231 11.463126597012284
-44.62762769444656 -3.85944901110493 18.936071670748262
-44.44457592669333 -4.28856414837008 18.63798950454047
-36.888441062026864 -3.352485764757329 5.486687078220747
-44.749552385100486 -3.2978812242585 18.599978093557013
-38.20845619659026 -6.563831632733118 2.6997300554551558
-37.12464739792864 -2.3077681445814866 8.553684432296393
-38.496984388152654 -5.28810919643057 2.1707540226361104
-43.02306882668101 -1.5894389309150547 11.45506007288138
-36.51042678810864 -3.8355938917500723 8.209678717666144
-45.67569043529329 -3.9303722041055815 21.283015394847773
-34.84203807348672 -2.1148861101169194 4.491441715176933
-36.41550584064793 -5.113050575175592 8.368888737423035
-38.735935633247266 -1.5585677580604322 9.302497652611407
-40.95547263279958 -3.8899821210764136 20.61750201494946
-41.021080546092975 -1.4667773113641491 17.511507113094865
-33.36373844411925 -0.7110160136114843 5.724054457478907
-32.343775532724734 0.34598637221104767 9.453536150116534
-38.689662591312924 -6.003810774526983 21.593110815548428
-53.02870656258749 -1.8415528839349227 17.1163605877749
-39.89320538934646 -3.672267585775055 21.161154059539456
-140.98662329282507 -20.05891085467443 80.09999813026658
-44.6481594662319 -4.254558250228605 18.647902998085648
-44.6481594662319 -4.254558250228605 18.647902998085648
-36.77168122266208 -3.0684457883826513 8.368398233676913
-36.77168122266208 -3.0684457883826513 8.368398233676913
-43.1581436127848 -5.282249428022656 19.714160367986636
-41.874946566745365 -4.677797229089807 20.336525909479768
-41.852137634597284 -4.667507096051202 20.30675403689716
-36.42425599830526 -3.146231500514979 5.968849232297757
-36.21221688560189 -4.826446947159992 7.90324462986424
-36.25892146812522 -5.186260796206681 8.150616335491407
-40.46836926475525 -3.809575338434139 20.82970233457724
-34.108308727872384 0.5550197481772141 17.682489571077788
-36.22988493141241 -5.240090195909013 8.125101593528441
-38.9992420572303 -3.776032657554312 21.290699811984858
-36.67111943287045 -1.7702963329505206 7.944080134385757
-36.47880319234312 -2.3281761625758035 7.7608626455191185
-36.40444878472435 -2.321704143620499 7.587946760666952
-36.420025553790225 -1.9633681441128985 7.424809361805913
-36.51256859490292 -2.138445239132916 7.7426484916305895
-36.657313268041364 -1.7709757112238584 7.931218359978779
-38.936791134955044 -1.2077921559436824 9.341801024992904
-37.59579506586135 -5.65787009976686 3.96110818605284
-39.88754701323102 -1.5529587575956265 20.807809176942264
-44.43271301266258 -4.975908277476393 18.633060631203875
-36.210556617290706 -4.088059201753168 7.742263982891245
-43.820265857615205 -4.3872193062286575 19.20371686297552
-34.69258998679598 -2.202033605831505 4.260062902639248
-33.379370815471916 -0.6620352284721953 5.708520561591854
-37.658896772137254 -5.3239547087907395 3.8389498338845414
-43.992433012349 -7.09903586829613 19.465362244663957
-36.42319409410446 -1.8064859727527098 7.115706417945759
-43.518769820122934 -5.263605776155627 19.352804590290532
-40.03488334424988 -2.345321001114936 20.262701863884217
-40.26209268672963 -2.338985821281513 20.282007111388268
-37.01323665808696 -2.4115631051470725 8.499938785594495
-33.90273790129025 -0.8276981111467192 6.018202489513378
-33.882558808243964 -0.8265392427230589 6.0199378522597655
-38.20845619659026 -6.563831632733118 2.6997300554551558
-41.36468142877708 -3.7175768778556293 20.445317635280688
-38.64576130434688 -0.6680780611042625 16.955259043366773
-38.64576130434688 -0.6680780611042625 16.955259043366773
-37.04919901488658 -6.410340310620599 4.8760563307269535
-37.55193292827148 -5.800764836004321 4.008033086470562
-36.46512630819521 -4.202830107719333 8.222033134908735
-42.89907685924847 -5.1494809776698265 19.779241860702093
-42.88336372587817 -5.141640370490665 19.769526848466754
-42.89907685924847 -5.1494809776698265 19.779241860702093
-42.88336372587817 -5.141640370490665 19.769526848466754
-40.092997970445836 -4.202986217385778 10.17059599873837
-43.64566537163794 -9.412842592312078 19.41304702027152
-43.24106260089622 -4.764529624722454 19.49920664133692
-34.96117118214085 -2.373766357404124 4.158137370990815
-37.36128208708894 -0.5988433112829172 8.431032541196224
-36.536530517131176 -1.4100723653952416 7.5669978783101755
-37.56213347277213 -3.093270972995348 4.199700760707174
-39.12764307221042 -5.93862234278113 0.8133955761456377
-36.45757421593983 -1.4922904823174523 7.241689783383869
-36.53441034415012 -1.2355669672145861 7.4980513829310524
-36.49920940157468 -0.6032898488274521 6.884338773461678
-37.21266723643355 -2.598652479033044 8.505076133126408
-40.844127104185 -3.766998783346307 20.630268432153997
-36.49236908186393 -2.2415092235798992 7.7372524412212655
-36.474567965772025 -2.3916075442900846 7.782142508086324
-36.47604588659888 -2.2332432456118427 7.7309500412270395
-37.31662933769414 -2.4996750706710573 8.698366891444422
-38.25678192945324 -0.31930282739253624 16.26297800418331
-37.22090399226921 -6.4488938601522765 4.3925396338155664
-33.86460216923987 -1.2343229986720674 3.953118511106098
-38.73650920060806 -6.8401857290582075 10.018288756151279
-36.79871726549439 -3.0785159227525796 8.41971621879565
-38.66091923432219 -4.400484348226755 21.696945171769016
-41.95543604618511 -4.866471751667667 19.704579169670893
-47.94892833050652 -3.5736942970878918 14.888214073412577
-37.93638598709044 -5.149685579262989 2.6464688699375074
-36.6601281428819 -0.7427996625929216 7.782234460199845
-36.693513601046845 -1.826542395803732 8.03143172143455
-57.491945797841844 -2.5790671115983184 18.974972110769755
-48.11987267943721 -5.683446585181837 2.1428391672878604
-52.787152905151 -2.811199214382195 16.770005980403305
-36.5045048089246 -1.0029729566311438 7.304544230134049
-36.69202672833596 -2.16393043108726 8.088312182177447
-43.39078092664174 -4.91609588263022 19.493122252592457
-37.658896772137254 -5.3239547087907395 3.8389498338845414
-46.43817295774443 -7.215046689190257 14.249275915655751
-40.092997970445836 -4.202986217385778 10.17059599873837
-36.21886004611625 -4.012203640238538 7.724494460675594
-36.1901148299012 -4.00330314309796 7.710525162507828
-36.76070844081616 -0.7886876682399597 7.827909198085855
-40.009315566827425 -7.4328360506630435 10.926211536128875
-37.46168109389737 -1.1120045638549678 8.575940176936577
-37.067311457424395 -2.1474900404277175 8.529476752696056
-44.02520807802675 -5.352516264338472 18.796973261160254
-36.60005591539926 -3.3610433459479765 8.176596723232564
-36.31327656113717 -3.0058331338788404 7.373418626817809
-36.527626302214514 -3.6023259581244895 8.098208448117141
-36.934030271677386 -2.520374492597556 5.4292627493265755
-50.09714662237911 -2.022120310559197 19.158189634000777
-38.50261293430994 -4.791174006446415 22.145406895003006
-36.32257137707545 -4.563369984038682 8.099803688902107
-45.293021616827524 -4.965926904120067 19.179536108733473
-36.594854425768354 -2.0422260903921607 7.917345100890486
-33.63534874439992 -0.5073888203566908 5.879726474493879
-34.09803834012218 -0.845061598934091 6.120381484997594
-41.69867783430721 -7.0905019700605925 20.145342285425166
-42.073964626274716 -7.167053543806328 19.995065997872395
-36.39714017595762 -1.1837614573658142 6.3807367622229805
-36.36112850074478 -0.9954094151385409 6.427576707508898
-36.51123177574067 -0.49899932797768454 7.135285616647202
-36.51123177574067 -0.49899932797768454 7.135285616647202
-36.04506937396599 -5.061047350220375 7.646213471931915
-36.2360729935405 -5.507128469033631 8.198402068722004
-33.933372160075436 -0.8214593857064152 6.038196607383128
-36.793442360137504 -5.7392373070978895 8.791608919434836
-36.50225742166945 -6.056343433095584 8.673243598867145
-41.679260756165924 -6.442322337549078 11.280191923225388
-38.781035521174786 -2.692171415533662 9.495372373818888
-36.888441062026864 -3.352485764757329 5.486687078220747
-43.05975814823587 -2.0334196769035966 11.616345505771328
-36.49249617414269 -0.6214976068039029 6.969461849808994
-37.68455560194444 -6.429689206724435 3.6962943308944034
-36.392497238204705 -5.0844477656378775 8.33657139792917
-36.69380938897662 -5.959367992067936 5.485200987811922
-44.07988118238747 -6.628824876112909 19.383779431389428
-37.24209847460489 -6.444248312845767 4.466873157094433
-40.95547263279958 -3.8899821210764136 20.61750201494946
-45.68683655919261 -5.3277548898224545 13.524138760107142
-37.72809493368306 -6.547130615301283 3.597945586109489
-44.25275528715895 -4.290669694048713 18.798520983769407
-35.274735968556605 0.09538685489484955 17.1320871262283
-38.66091923432219 -4.400484348226755 21.696945171769016
-33.41541105794072 -0.5033115075108014 4.912116463489824
-39.0583139783089 -6.817784778741483 1.210724717658529
-44.06586972854558 -7.680421944417516 19.01027121553362
-44.10961474081142 -7.690562287554643 19.041402347938075
-33.62943986395675 -0.8046752449613503 5.8354330509192
-38.69884928677023 -3.7738300013112696 21.387240579031143
-36.91487009000054 -4.802801593194122 8.855814675722257
-35.9870285641767 -5.649504269092424 7.7481501959506005
-36.11989181258481 -3.709243940130621 6.702215272582222
-36.92811825580254 -3.093384799252065 5.303427580088886
-46.41917239876999 -9.07682158442536 14.363785343847304
-36.18344913882062 -5.274076263627758 6.052480426999502
-34.79784436683465 -1.504265895122228 5.426905914481793
-36.50661947443027 -2.823471206728101 7.916897715873667
