-38.30955974276056 -6.677976007872215 2.511010598407445 
-38.315609394754475 -6.680967884168149 2.5107850146445827 
-36.465710607580164 -0.8850661277580762 7.244490913357026 
-37.49120160463048 -5.056453510699441 4.129561742574296 
-36.9071670274739 -2.788639307162202 5.463697192824419 
-37.86314915167324 -5.781836050763837 3.5098186197431502 
-36.65833294196125 -4.885117176541044 5.577557408906564 
-33.50612713951915 -1.381673469933637 4.53045402944521 
-33.5385873650006 -1.2083807953798003 4.5051254170511115 
-33.65395338975479 -1.134763807231657 4.364422267253616 
-33.602481900774976 -1.037576521152399 4.493479657554474 
-33.602481900774976 -1.037576521152399 4.493479657554474 
-33.5638219483089 -1.5532363016482345 4.545082166514682 
-33.6429236865548 -1.635226445346463 4.574973687824645 
-33.87690208100631 -1.3949483860948062 3.9848220956956197 
-43.09061020115293 -3.2031510162366486 11.66334994985106 
-41.119981188528186 -6.3086020296802445 20.662061409781778 
-36.869724899397895 -5.08725772490373 8.754354164984072 
-36.363925858392605 -0.45857524568752783 6.757760555268014 
-37.235629992864226 -5.230743185369394 9.05423460416722 
-33.33835294211021 -0.7759254725890177 5.705254344883578 
-37.165888310293305 -5.55788829301349 4.946796007989747 
-43.16065730846788 -1.4635366655307624 11.507284554153415 
-36.355503235298166 -1.1771115924940103 6.46097545411093 
-37.015582171177684 -0.965386710912524 8.193346799123916 
-38.382755157276016 -5.872743629997133 2.5270525910673953 
-42.68483990499645 -3.075588341682688 11.19710041913683 
-37.07838718901291 -0.9780047530459619 8.197543873429886 
-38.918561824021 -7.230285339710766 0.8858611957359628 
-43.216400599539526 -2.980285046844691 12.431858541924917 
-37.24209847460489 -6.444248312845767 4.466873157094433 
-34.85411784447844 -2.11197551806553 4.545234427066781 
-37.351593350569004 -3.437117384523601 4.580230313011874 
-37.22916317298616 -2.0102949404169514 5.129753662678631 
-37.130054609398464 -3.0668489328673 4.895956731899815 
-36.96204119281897 -6.290220249830023 4.972943524285164 
-37.196738273813295 -3.1080553287389705 5.000176687235502 
-36.10382503777615 -3.9525855290545895 6.813134899046169 
-33.920868417292574 -1.3748037350800262 3.8779106663679954 
-38.298696158065 -5.901994108334495 2.586301057727063 
-36.63193525872218 -4.482271466617214 5.709989620245793 
-37.03193886973702 -3.452986568827064 5.1140712934941135 
-36.80931947591632 -5.07440261779759 5.424615022942909 
-36.26067684193931 -4.204771369849093 6.086975572434511 
-36.301176439153416 -3.9092242902534045 6.071208989582246 
-36.84158441631379 -3.271609490754031 5.568330450198516 
-36.820812332330874 -3.2338493912991177 5.580771706243283 
-39.38487806075576 -2.351205675154022 9.631771655256017 
-37.53132719452078 -6.189414339231821 4.545623895869937 
-36.80634673406634 -2.704283928271777 5.674816979515924 
-33.569466974179534 -0.5359825862022678 5.897633997876028 
-37.264823283956616 -6.243146014046106 9.123319752181786 
-36.084559230607674 -4.487967608634398 7.226666511931079 
-36.95312978621167 -3.397279812847195 5.294294586536928 
-37.17264589711247 -3.4552315393952675 4.763508205037425 
-38.46743315099895 -6.634339920261631 2.238964185959233 
-36.287683164156604 -4.069192552107342 7.962861406195273 
-33.593318585289296 -1.5704966643139509 4.615246233238636 
-34.83036143704217 -2.280018880009716 2.738661571414724 
-37.82728337617082 -3.241650101030187 3.7290631915882955 
-37.58289608759989 -5.701648388348151 3.9761808214929175 
-37.39809865025946 -5.277316334620606 4.497664529219648 
-37.396978084506685 -5.2787779033463105 4.49760111029795 
-36.29796319867081 -3.8472126414921606 6.065772196011473 
-36.99259440264599 -3.3805356178266788 5.328893307019825 
-38.151070300049206 -5.797202030103389 2.9266972222957577 
-38.140586081459126 -5.790376604367555 2.925389227774069 
-38.27199166833178 -6.694008727616619 2.593928960049304 
-37.196224438016515 -2.377270010243728 5.090660954472618 
-36.98141653625951 -2.686161078691195 5.35053127885697 
-36.42425599830526 -3.146231500514979 5.968849232297757 
-36.943725752617716 -4.938705144831584 5.120539832138796 
-36.55593404603009 -3.919122112421375 8.304918585796138 
-36.92292439508695 -2.8109669341055206 5.493758202288205 
-33.95368049120821 -1.968369991422061 3.8849092772923086 
-33.440321967351714 -0.8728118636050963 4.695823191821631 
-33.80987270764915 -1.304385598195883 4.049043731314853 
-33.409824398432335 -0.6095777135995162 4.9497048891047015 
-33.97232124547462 -1.532227026950193 3.8145962903833777 
-43.147057338146155 -1.8458490153809288 11.55108610181577 
-33.46063622378233 -0.6174947810080358 4.842173636357629 
-33.41541105794072 -0.5033115075108014 4.912116463489824 
-33.44062288622048 -0.46585276994938063 4.872228625192363 
-33.43130454713308 -0.6438498353159625 4.898506645802172 
-52.749781032119266 -5.974109736097434 17.13189060828914 
-33.37420636068483 -0.6872005325683306 5.707017750400254 
-33.39331682555499 -0.591677530865593 5.741069945773738 
-44.30160966380234 -4.000799533806405 19.069435037032136 
-36.35323603655602 -2.065234267819303 6.170269084093377 
-36.61415000087123 -2.135135221867823 7.9616227792875165 
-34.38652665143139 -0.9288710712302617 2.995941439095205 
-38.69187144296504 -6.0113922442912635 1.9886662625425018 
-38.66620885750409 -5.944479742640983 2.011332608002057 
-36.99913472880037 -3.0759168174453277 5.290322343772303 
-36.30586805817714 -2.9756292253591 6.318076377224116 
-36.32325466510203 -5.964580358351153 8.429413457560273 
-43.958400747543905 -3.671193822987214 19.198371976328346 
-36.42053552336583 -2.0040440552325878 6.2591820830286835 
-37.00152493037109 -3.1112122663787227 5.305859202248222 
-36.09610449601327 -3.9368400212116343 6.822000948645055 
-36.28158567110033 -4.08801660777806 6.081213510981499 
-38.66812652952603 -5.532374537196723 1.9991204264208804 
-44.47253402557135 -2.274495870858023 18.869785035055735 
-39.10530276777374 -5.867083955262478 0.7762330334612173 
-36.87397429201436 -3.1425353706688215 5.486482523384183 
-36.6367346626498 -0.4436638905940482 7.4632917565162415 
-33.40025628559339 -0.47718409361721825 4.96556536334468 
-37.59645547905504 -5.7899818426320575 4.019392685547203 
-36.943729829378455 -2.7310768411924613 5.429011915605344 
-39.07515903912449 -5.786706964244193 1.4316424701574775 
-33.56721713311881 -0.557585566688414 4.600062270232819 
-38.82230814648797 -6.831764804702682 1.430647994066753 
-35.99272976638984 -4.839818359857467 6.913609154488157 
-33.54120052924283 -0.7478006943479762 4.576519067169656 
-38.931180772342586 -7.231015130438402 0.8243070498183442 
-36.981539306410674 -2.810209555217641 5.356874132558929 
-33.44920483230861 -0.44686367899434565 4.880389100201413 
-36.42972416202472 -0.8346047155743204 7.032219862109656 
-36.29863049764724 -3.494738485162105 7.705598741879271 
-36.71651298059318 -5.28299310353899 8.738304486572694 
-36.41288646579234 -1.57802501125939 6.449238666445979 
-37.10946629017053 -5.208430697208822 4.950501393874468 
-33.46473743162628 -0.9914380705418244 4.756140899808301 
-35.95858661164618 -2.6501532381101436 2.941085527705397 
-37.06848422316667 -2.70228458808408 5.259863887100003 
-36.08836094785276 -3.9322589708293263 6.905301111188436 
-36.11013634566993 -3.940035094014383 6.91510914420563 
-37.58185078871814 -3.1811681916764813 4.193640980100952 
-33.76633584236514 -1.775769607559682 4.552317729861386 
-36.76302632163021 -5.4311947171320565 5.41532912068719 
-36.25847214950885 -2.7104985507035844 7.095498383465028 
-36.36937510016054 -1.8024476069190811 6.356111561805314 
-36.54960642187803 -5.4018739208989075 5.744267304452123 
-37.02500753805493 -2.6399303659975057 5.295103974635467 
-36.81409373200063 -4.9016003262795484 5.312324195389074 
-44.51361902751739 -2.0888464286044153 18.851811679298038 
-33.399120595041666 -0.6205934466673728 5.70968500956338 
-36.967480955694555 -2.460728207513305 5.440738218098915 
-36.21154141827049 -5.213950656101043 6.043062255455403 
-38.15848917411711 -6.667748829717851 2.8380806835276715 
-37.62945387177383 -5.6530028750966395 4.022877596018034 
-33.510527914182134 -0.9643178769055973 4.612061957022917 
-44.66990024673238 -3.9880345457100956 18.77695429242833 
-33.2835581160967 -0.49297084085166 5.354406514247266 
-33.28898735045041 -0.6746380284819642 5.6122473657284715 
-33.36709697069415 -0.4942785734212265 5.044824781291084 
-33.36709697069415 -0.4942785734212265 5.044824781291084 
-37.837057829237594 -6.214125084231606 3.6093399296206385 
-33.44044879311866 -0.5858951186088923 4.883451500543714 
-33.467292254415625 -0.41039034987267264 4.860127352273786 
-33.92604136241681 -1.7927097095859166 4.024518999263655 
-33.4227582712931 -0.42113417441748346 4.911236999270997 
-33.403842969202906 -0.4265481759440517 4.957512853582337 
-33.8598295952634 -1.2553794378162282 3.9640434602632695 
-34.11950162066263 -2.0994290604343675 4.097727511297158 
-33.85931251753679 -1.2150947856792538 3.9543076704145435 
-33.380725270588435 -0.6718563604176362 5.690133083237427 
-33.15745355255155 -0.7325454242510618 5.468265865112372 
-36.61827139630812 -4.950351789244703 8.555463200781503 
-47.81940782098961 -3.404613964563514 14.217554958530648 
-36.71947652186394 -4.31559132866081 8.534546511829433 
-44.335975691604446 -3.5599311631289776 18.832341686681858 
-36.46985789177167 -5.980207848487085 5.8240464469850295 
-36.38674966337426 -0.9134177634790497 6.769162437672364 
-36.82670965888693 -1.5946591020318994 8.160015001782746 
-36.340994272992276 -5.094232774057172 8.243852279717387 
-36.630658644661054 -5.4401843402983125 8.657734006408354 
-36.43522812667636 -1.3070859892901652 7.2382276650714275 
-36.28246265474417 -5.837849628033869 8.307492571045536 
-36.86981471061464 -4.214606338588575 8.661134269171477 
-36.2730717878614 -2.5784127753445567 7.046892975745642 
-36.25187364970919 -3.11197897043826 7.3485583689409495 
-39.242559820644935 -4.845072276118548 0.6880953376922534 
-36.53633118595569 -1.9250443586853105 7.762598059692131 
-42.566007488453714 -6.411654830255687 11.975396681879168 
-47.836322501171836 -2.7514764931983215 14.149172607460876 
-44.551000811477905 -3.615581792289597 18.514551257641116 
-36.64888472324927 -2.2922578562576206 8.032466722819358 
-37.427072879699885 -2.431793655213438 4.634699573679043 
-37.057853181528735 -5.552057554264048 4.8821201215381365 
-36.31216640512868 -3.7386638862139865 7.8525300154615465 
-42.74324034832989 -5.5905532219893 11.946224583551967 
-44.27257526263955 -3.8931411416515367 19.072757024687036 
-49.762647360553714 -1.0933219188055787 19.184453689767928 
-43.93919824991819 -3.9877227712240577 19.17628211386593 
-44.69562937387152 -2.3617358333094494 19.104908883990824 
-37.138685599735936 -5.2414849588895995 5.131786501299068 
-46.41292129606783 -5.079952560080352 2.6272598301743386 
-44.470682699328655 -2.170362378432092 18.96609221312999 
-38.735935633247266 -1.5585677580604322 9.302497652611407 
-38.80797273800898 -6.847998932441564 1.6178176398274218 
-44.73754977296445 -3.2403688637795858 18.54631050050275 
-37.37035005581679 -5.264050364945078 4.405663613078268 
-36.305866145442295 -3.3866763111780998 7.673848362101182 
-60.434289674414714 -8.440148702143441 -0.012364617987159932 
-37.09300832784329 -0.8649533093119963 8.231048707892953 
-36.22918647691787 -3.662294498224652 7.530908579914218 
-36.364768148616655 -1.8016455408678702 6.729571143362769 
-36.073623995361764 -4.118140500207097 6.927041992973443 
-36.479468235322 -3.9689071869577974 8.11088242059219 
-38.97253323254767 -5.61329514256158 1.1138445431858486 
-36.18183904533588 -3.7450773667004507 6.395668961140082 
-36.26885788630918 -2.8910297944026047 7.2868288613413625 
-35.99229687415602 -5.711008563660469 7.776808608558682 
-52.46766526421459 -6.102094750240888 17.089087466697137 
-36.18070810837408 -5.275824587734767 8.146388421071848 
-36.91858323403122 -2.680161024758177 5.440304336751467 
-36.20480761185766 -3.080710160405002 7.054481749584767 
-53.02870656258749 -1.8415528839349227 17.1163605877749 
-36.73704520524005 -1.020348125326886 7.8557829273945 
-36.27383518693303 -2.6444169769164114 6.628895552723328 
-38.90527778612501 -7.333545220285338 0.8864184462870028 
-36.19987211143902 -2.9766392893286584 6.75759903577417 
-36.66435140421612 -5.47383327311574 5.549461111917118 
-36.81090803449894 -3.3311628243123366 5.563774363150273 
-36.190216926008205 -3.3894413578186846 6.57978059244175 
-36.248768031311386 -2.9293765516281 7.245609343771115 
-36.934030271677386 -2.520374492597556 5.4292627493265755 
-33.99552245951324 -1.81070345182939 3.8789924428650764 
-36.364257503061 -2.361527625223899 6.2690861604232495 
-36.24865202151831 -2.8704157256331673 7.15218783627833 
-36.64399900559878 -5.41355575526512 5.585978665877569 
-33.397955020431475 -1.2630742101871828 4.848432865804867 
-36.87335373924265 -3.090764430867475 5.456537785376781 
-39.58849970634344 -4.748880578675601 10.174675798804415 
-36.409653590712594 -1.3790099640244051 7.112928476623651 
-39.18819958395158 -5.7446127806382306 1.5472148093847196 
-37.19640718502538 -3.1317230907281433 4.8741369445440625 
-36.43580180381587 -1.4298235017590502 7.25120350272951 
-37.19710244207218 -2.9952446640158286 4.891823839685237 
-37.56213347277213 -3.093270972995348 4.199700760707174 
-37.15905575207961 -2.910223428956334 4.878462793374631 
-36.39329153871599 -3.7062234734257595 5.887646509807659 
-34.51995274013413 -0.8713527116996698 2.8556930567462473 
-36.23865459863165 -3.2972074448553546 7.4801128339233856 
-36.38622561632775 -1.9742719757728882 7.315185731704162 
-37.72809493368306 -6.547130615301283 3.597945586109489 
-37.92987589562465 -3.9444573801113565 3.422076968984264 
-36.21886004611625 -4.012203640238538 7.724494460675594 
-36.20597778301642 -5.259860970608039 6.052142604763972 
-36.319382176207824 -4.984159439423437 5.999599670460796 
-36.46248818788602 -1.551916328535171 7.27263483211906 
-36.34740106279829 -4.442432712795799 8.094194210077063 
-37.67529130671413 -1.7126537651699953 8.780240527957666 
-36.42218935349263 -3.722208349851133 8.048066823272393 
-37.02529175913326 -2.6396040764806497 5.294804607152763 
-41.89958148443142 -6.3875152084919 11.384408397345297 
-36.51491786540833 -5.61053806413277 5.720698241037866 
-36.45498996655928 -1.9674391656223076 7.496060798501205 
-36.25933219599788 -1.8707029047067376 6.856062502384745 
-33.432530309612275 -0.4998558443240828 4.856658157618483 
-53.105387301894865 -1.6692071741995056 17.216007506202246 
-37.51592615269618 -6.2005519853660545 3.9995661232960558 
-36.208106091433066 -5.063812460714809 6.024969910820303 
-36.28973827928248 -3.011390768477712 7.518633217906888 
-36.237700774135575 -3.493129550110422 7.542490623843236 
-36.93646006027603 -2.5210969335079128 5.42750844467988 
-36.68134827008376 -4.6561016661490555 5.623357104195229 
-36.49621020993799 -1.573332697499862 7.497746027832818 
-37.00015436938531 -2.5019140792788317 5.347180732485484 
-36.980079022858526 -2.4984060737705462 5.343705054426259 
-52.766004623246204 -4.587438003819024 16.980359631543017 
-38.21943237753712 -6.568504756400267 2.6976398000316166 
-36.50562329185735 -1.5452791360653082 7.5550537757391965 
-36.26983445620193 -4.859948561455758 8.05441316381983 
-37.92047169432791 -5.370302599393212 3.4643795760273832 
-34.16602660422133 -2.1586582677408384 3.9831317315598227 
-37.60083891642564 -5.661381293372153 3.9606518745460306 
-33.546860834874536 -0.9847858617495593 4.5793415433837055 
-33.379370815471916 -0.6620352284721953 5.708520561591854 
-39.270919477255156 -4.1423295877533555 0.8452808670995466 
-33.263836620599285 -0.9245497254829402 5.333949628072588 
-33.476015002884274 -0.544042478421086 4.823917881131138 
-33.19329319612351 -1.0074915178429293 5.38999118244552 
-33.40045146016952 -0.5516041600256951 5.003867150970102 
-33.470217152545 -0.4092002161134376 4.860097362684883 
-33.41487912785995 -0.3896900596810724 4.962693477034719 
-33.51990988137875 -1.277440517941061 4.6609400886532555 
-33.29944005397941 -0.8566320777472125 5.58638234942859 
-33.37867063054768 -0.5395475924911795 5.042668823044018 
-36.92558847575722 -0.5689837101302873 8.050819959613008 
-33.54383572568303 -0.705291971679598 4.565717919189751 
-33.268915272201916 -0.4674004851077296 5.246511941901915 
-36.7029737621886 -1.8303283693686012 8.027904426040344 
-36.625785731020116 -0.7712696088845243 7.591790800566024 
-42.99747432370605 -0.8519860391459364 11.895810359624996 
-47.772378895359 -3.725164950020874 14.245954721715329 
-37.510363179483086 -3.2032020602131155 4.418352662309488 
-37.85721261523254 -5.785362207332872 3.415527426032881 
-47.74497453464559 -3.158601759971229 14.069545736701102 
-36.93230811786564 -0.6396384150460888 7.982130522825386 
-44.56424173293902 -3.865352052159289 18.524721199813825 
-38.700121346130224 -2.9316951586312356 9.54550527830824 
-36.744162587683654 -2.8631126931410105 5.589658681743089 
-35.99733295672393 -5.698335534355618 7.704059499722611 
-53.6469611602834 -5.622683534580458 17.991856514421045 
-38.66844789793239 -6.882141394324682 1.9148197875695985 
-33.35765931944461 -0.7089464361050819 5.681003390887824 
-36.58823891460716 -2.286742239452126 7.9468073566226 
-36.636210987057524 -2.317085492055204 7.9689563024740835 
-38.080740476259294 -5.8445621920046715 3.009763771713615 
-36.91361986628414 -2.723906644034985 5.5600121974947 
-52.35671157648439 -12.04565170441379 18.01682004595596 
-52.3204674421298 -8.464136689424922 17.60603942565487 
-39.07331740074621 -5.752557613978695 1.5411731943068219 
-43.105662041607005 -1.9731170691400637 11.525842651474235 
-41.2139549087525 -3.9323979680590266 2.1250656564723016 
-37.084830236075874 -5.172413489407669 4.888518016185429 
-36.26494148351095 -4.8593261650529636 8.051998748009702 
-36.519883062578394 -1.6836635446756647 7.582357795913126 
-38.78670830097872 -6.250276444919562 1.7915336408092841 
-36.025378963922655 -4.798040600392445 6.904505540533698 
-36.263764460569476 -2.602128436432821 7.016221232874614 
-37.49617588227147 -5.081753838701182 4.103321097951607 
-36.5631336931676 -6.161351245158505 5.637010744229187 
-38.02238428394586 -6.643392500762447 3.0526515422360205 
-38.94937693533799 -6.001292852536336 1.3346956297423773 
-37.313785914927735 -3.026954865907749 4.673424800549888 
-36.291820282499074 -3.9301735441961645 7.761878207815705 
-37.24974668496406 -3.1130889568023576 4.989869416796829 
-36.29482743521286 -2.7596035110830597 7.430900524154474 
-36.23000231980542 -2.8889143102550383 7.186132781214468 
-36.50803321939935 -1.983208429491964 5.940312270065476 
-36.1901148299012 -4.00330314309796 7.710525162507828 
-39.01388331687947 -6.13475572685566 1.5197327526842486 
-36.285993515746895 -2.4651899356891613 7.235456714400101 
-36.254750176653424 -2.8903538200533934 7.278912863138572 
-36.315624706942714 -4.906678169009198 8.16199798863353 
-37.87953939815098 -3.342775178354608 3.722300775806346 
-36.553675137302285 -0.8481423111618209 7.351825348343141 
-36.35284154001613 -3.172236493044074 7.7411929488504185 
-36.648307650751995 -5.4012438428732334 5.5521235858379185 
-36.61887992672405 -5.651677667691646 5.628178184873136 
-36.05038809838692 -4.523287831784264 7.194530977034226 
-36.095966089742205 -3.7325188218376555 6.738228239656564 
-36.25481398820057 -2.977910487369641 7.338190930194038 
-36.38737627976131 -1.4380018741521159 7.075192878172523 
-44.12767237276943 -4.174328227909925 19.31460435018834 
-36.325114720965104 -4.535220554702931 8.075192995129477 
-50.28800865216817 -11.802016109889259 17.061732097341945 
-36.25448061527773 -2.921046384334147 7.293580986302736 
-37.02690333839399 -5.62038532863426 5.0651131747113425 
-36.47880319234312 -2.3281761625758035 7.7608626455191185 
-36.56752693791314 -2.317010185625753 7.9161692632069105 
-36.04145203238047 -4.742267778245557 6.640324788993794 
-36.14090420424881 -4.817019155558533 7.806891578737947 
-36.370508938135444 -3.1516825381754137 7.8027296924823375 
-36.691800281780935 -0.5038241841445128 7.54496255798513 
-36.2954536683341 -3.166257219704444 7.644849891522952 
-36.59190229704077 -1.538437494934052 7.684792047030548 
-36.40444878472435 -2.321704143620499 7.587946760666952 
-36.440800517038014 -2.141269364203656 7.582735466574178 
-36.562736695897634 -2.1937550177133733 7.915178947755713 
-36.17814254084295 -5.245436091105301 6.086190759997763 
-36.60569139140948 -2.999628006406331 8.151264230154688 
-36.34639066098667 -5.1125415578088305 8.262172830426728 
-36.82612071120839 -0.9268168597109296 7.947861719234822 
-36.55505773089796 -2.7349535494769004 8.018369669992587 
-36.487890364342256 -1.4753908820459491 7.51635592893998 
-36.40211588342781 -1.3846202019320089 6.929080474128618 
-36.288825327573534 -2.408960827645598 7.159564490001344 
-37.02373471724404 -2.472435469713748 5.308041661500766 
-36.81331177339567 -1.9534340779368664 8.189793893137029 
-36.61297365813837 -0.9308762594621873 7.621856069271857 
-36.86346269353789 -1.3518896852535196 8.135285001946002 
-36.984122726903195 -2.476130191952821 5.378178478609357 
-36.7147786748161 -2.977309118215735 8.32068441258994 
-36.26552175914496 -2.826999439031084 7.266829885544659 
-36.69398750079774 -2.2518703878985926 8.12862607524118 
-36.35469776445532 -2.2063265967308237 7.440748616631318 
-36.70940919679976 -2.0106553865598924 8.096330039757795 
-36.65304052572989 -2.1988723368059224 7.998646829585994 
-36.48513579035854 -1.6027608374579803 7.52552928953066 
-42.877270462239316 -2.0319662987460534 19.44241578478252 
-36.88877359491024 -0.6994326975676666 7.972168103659463 
-36.589925654239764 -3.541762444461546 8.25531998686376 
-36.561521459127945 -5.445552980792536 5.782148200117383 
-36.84551995113391 -3.3441298591073325 5.401820111562685 
-36.58106248678921 -1.590893872942834 7.764755558276519 
-37.1055091782393 -5.181722368446124 4.887616333839674 
-36.55523307738241 -1.5914285572940594 7.715682049482119 
-46.90912050961033 -10.587625451534942 14.96019111072004 
-36.0105058282235 -4.8009865314064175 6.876763015267336 
-36.00794099932659 -4.799695230933056 6.875757049545122 
-36.44772115049937 -1.6884911311235653 7.378072642859365 
-36.44555475954581 -1.6885349581639524 7.3777532949036555 
-36.25976045684004 -3.3683685350372166 7.562514430330239 
-34.93176777440502 -2.1648368876329798 4.309341900785128 
-33.24606003757067 -0.43015172496221954 5.430387014570016 
-36.24369192097145 -2.9928615646539045 7.317987529292012 
-37.122746452426796 -3.030197980817502 5.215250800317165 
-38.18698173808827 -5.184695906633107 2.816350798611438 
-36.594222090770415 -5.86379858409477 8.721777645442948 
-37.69449932465028 -5.7945578745356014 4.082345617523188 
-52.90583495881161 -3.865161059243622 17.173293197684117 
-36.41209984152407 -1.8329734931292183 7.372471864602566 
-36.03959109809144 -3.748360563497738 6.773714362918042 
-36.40378320619425 -1.322970062446414 7.0188414958177745 
-36.104085598367035 -3.825142644555287 6.764180209491478 
-36.268816964433086 -3.85142182448814 7.743300129377467 
-37.09431045755981 -3.0899245914362616 5.222159254890613 
-36.15046764762694 -4.826401250580572 6.144221278399044 
-52.22471302236623 -8.340733965344066 17.5288693751122 
-52.25454467697865 -8.348376372336595 17.539427023462338 
-36.274808932902666 -3.0758793906335447 7.425239924424801 
-37.02327507298687 -5.50814734024793 4.7330241195130895 
-36.2360729935405 -5.507128469033631 8.198402068722004 
-36.40735528166694 -1.5889411040266301 7.062862775294661 
-37.674279168004084 -6.2648580435354715 3.802129591123446 
-43.858092754054894 -7.154094145269264 18.984745852184957 
-37.232233945938475 -4.867310311637839 4.599649605938524 
-35.95310640312119 -5.027669319316651 7.1370344756794495 
-36.05955098054273 -5.13368730177149 7.689521852711138 
-36.78888396496866 -2.806360870567552 8.351129379944155 
-33.387239262613505 -1.2318639262353113 4.871959938199254 
-39.00270326912005 -6.55765788270907 1.628938609500267 
-60.434289674414714 -8.440148702143441 -0.012364617987159932 
-34.50293190100971 -2.3266020425852663 3.786136382222523 
-44.56348006553493 -2.0813368935942487 18.81554972475304 
-36.25478441219307 -2.663150638681107 6.996656830050803 
-37.29774707897714 -3.770619257626138 4.591329353157178 
-36.43694652974872 -1.424144358588574 7.328217403847432 
-37.033884241001225 -5.585320235941257 4.979045401238089 
-37.86496717866654 -5.752045011798133 3.4973943185258918 
-55.86367769510527 -4.597580071859115 18.460471294976763 
-36.55506053155571 -4.21667532163373 8.32339952094776 
-37.41347995102531 -5.024058535394804 4.528820550239459 
-36.436938596940706 -2.140500195012823 7.5804364394238775 
-36.42287260469261 -3.5919977693276275 7.971405346424625 
-36.10966417085747 -4.578320628296025 7.623900083045079 
-36.9843927161663 -2.8896311170713176 4.897637081158152 
-36.3153096275947 -2.426211768483631 7.30290465949335 
-36.32627322538437 -2.7298069918017545 7.483829750117863 
-36.39289743681341 -2.1994087195713607 7.368950783494256 
-41.89747309989153 -4.737391598669812 20.130086125886045 
-36.66345100286301 -0.8523271635618297 7.726481405401614 
-37.672741141149984 -3.124971705707839 4.281672530987564 
-36.16392144525562 -3.688764715332441 7.298004711885355 
-38.2646865219539 -0.1042176232558214 16.30054869458702 
-37.944220408113345 -6.5049759350937455 3.1957461373532396 
-36.16161076894632 -5.263871554153415 7.961814760545018 
-36.532064117023445 -0.9405492538865996 7.38348914092029 
-37.7407106886544 -6.604629030666105 3.556690697766072 
-43.80026064377691 -3.9986614918551595 19.137948590024074 
-36.61746757446453 -2.1748688277586545 5.771743876325765 
-36.721123031257996 -5.565800792421714 5.47363746200962 
-33.377342191371476 -0.45147608982822973 5.79402449599236 
-38.97419790011668 -3.5818303139646614 1.5804300828880713 
-36.44923207372801 -1.96124641460308 7.558061644790449 
-33.474243410858456 -0.8136461673408482 5.600128352933417 
-37.03209319793792 -2.8882458786376484 5.138624112432403 
-36.67292172190249 -2.9846986322359923 8.24655704818992 
-36.3203603164907 -2.754937087161456 7.509626507736115 
-36.450587323592934 -1.6584551075263745 7.388141042496812 
-36.2486595110281 -3.357748861125441 7.563726381384093 
-38.64439169155905 -5.934157451975845 2.0155590036172697 
-38.95143192926478 -6.168292038570653 1.517422392257565 
-36.23940548735199 -3.483238590003025 7.513990837870978 
-33.233662691182246 -0.444828683097672 5.447923129902463 
-36.629142323866475 -3.041876944307764 8.195389099198898 
-40.457395013703255 -3.3919662848988716 10.184397881127005 
-36.26629123057939 -3.4183786136340144 7.6317517346926635 
-36.446004432028744 -1.3351684978767935 7.219835791730169 
-36.92363708723036 -1.9633459987580695 8.320360221311027 
-36.130635177782196 -5.2349513566821155 7.892791481985711 
-38.50658944514821 -5.27043455741758 2.1983464111260815 
-43.88134816042624 -8.407202034164843 18.996080505976643 
-37.25354351158832 -6.3947747645348745 4.461253870434483 
-37.04785609380931 -2.701935486782678 5.162763179023486 
-37.15541205220539 -2.727705908419222 5.039932009319955 
-37.071647615149196 -3.1418240386045166 5.215171209991283 
-33.410742675074765 -0.4859796314894673 4.92309877825776 
-33.4414937881746 -0.8665686583474645 5.7656137544520405 
-37.09134778679664 -2.260223210175326 5.066693416228176 
-36.04956793824368 -5.124700947533279 7.6227738722032825 
-36.76480635128134 -0.6279615852475358 7.7832700822795715 
-36.549460250551704 -2.0078961892190836 7.80373999704743 
-36.516286276995274 -3.0981620191476633 8.038622963008002 
-36.07260108528202 -4.228418424543433 7.133927614653025 
-36.53324408638247 -1.084577425636006 7.37296504723777 
-36.398541322368445 -2.321825764533328 7.584120776064523 
-36.94398254071712 -1.7186252943159213 8.296551725736983 
-36.45757421593983 -1.4922904823174523 7.241689783383869 
-33.40840087371102 -0.39905746772358164 4.931894476360725 
-36.21763862357825 -3.5176905231497857 7.4603881154406935 
-36.45564907199831 -1.1892901546847607 7.168960727292891 
-37.14066568683684 -3.553605030668029 4.88045442236951 
-36.15046639603496 -5.5493515551738035 6.109610698016681 
-33.360609816025914 -0.4434247100980553 5.0546029115139035 
-36.28157067402408 -4.912067396245951 8.09786545292436 
-36.65441063760238 -1.9986548623874105 5.7566536570489575 
-36.78932522508502 -1.4318948282032942 8.028397782940381 
-36.3026922559074 -2.7232541341829286 7.413703832784066 
-37.02774089109393 -2.6329026918014407 5.394643731528738 
-36.47650736320116 -5.663405409951677 5.809455870926421 
-37.09194055192432 -2.146919161695088 8.529324485986628 
-36.514289991219975 -5.875535578500291 5.817012582017135 
-36.18060709264003 -5.5183059105557195 6.071762475970125 
-34.96700478268099 -2.3663571601902893 2.7395717404987465 
-36.586545613040464 -5.392462497580878 5.712272482060605 
-36.42150378391207 -4.553435546409688 8.252705274744557 
-36.686642778511484 -0.823834353247392 7.673958004351576 
-33.91988214211829 -1.8349558383334061 4.0145751412309565 
-33.32508757511248 -0.407277703681892 5.538999422396074 
-36.399594459864005 -1.5320876389620848 7.05679619327627 
-36.486821172630655 -5.882889256464329 5.776982222726801 
-36.244334455116025 -3.126188505532891 7.373701831575993 
-36.50076782515272 -1.5693557116271588 7.539432314870773 
-36.131251449797915 -5.288440459884187 6.102818217682746 
-36.518087358086234 -5.619029958876717 5.786010932682387 
-37.12276433938631 -4.719918641526382 4.937317497060491 
-36.41550584064793 -5.113050575175592 8.368888737423035 
-36.47190157960192 -4.6194248616888665 8.329253848427314 
-36.32648296233385 -3.84688156978031 7.90681173787258 
-36.25892146812522 -5.186260796206681 8.150616335491407 
-36.38062549694496 -4.506345310840823 8.173914905128314 
-33.71333526802486 -1.1232958177040837 4.27198662846898 
-36.57885524925834 -5.905800563224119 5.623796890939879 
-36.49650755627023 -5.483286041762009 8.533838309909228 
-36.79612418515008 -5.03275040355628 5.406604993975726 
-36.016015192105684 -4.623718406979256 7.035183910903861 
-36.162366495137825 -3.9805784018416235 7.577238432908679 
-36.139115683926406 -5.234762685872084 7.922653289319001 
-36.536530517131176 -1.4100723653952416 7.5669978783101755 
-36.163164360406654 -4.4797826122831825 7.7236224568869645 
-48.486610346567474 -2.583132278565537 15.04526271862855 
-36.17153650027244 -3.575681856608986 6.9749935154182126 
-34.403978212911724 -1.1003996921275494 6.150819939305137 
-37.15186909773319 -3.476872575551826 4.910413549073269 
-36.45574938507211 -3.733002495761407 8.051091074770284 
-38.023674166784616 -6.2508887984682975 9.595097155555507 
-36.48387559909871 -0.5673351916688834 6.504220852132775 
-35.75024203991381 -2.64340281007736 4.5696220414855375 
-36.108075383368224 -3.7258301809703527 6.771310688758383 
-36.214177771995566 -3.755320409529574 6.347646220009672 
-36.55791880493114 -1.4173655208679925 7.233156684026213 
-37.204426562317025 -4.855051449106821 4.590022565486258 
-37.946617453741624 -5.120257713992601 3.270587651810331 
-33.3942434706794 -0.6130769342016125 5.010646289678199 
-42.01441841216339 -4.199936392081446 1.5000074044046698 
-36.45352367033529 -1.046297706069061 6.605446393161756 
-38.1003212058358 -3.341549488747921 3.2999056478234152 
-36.33227013157678 -3.904622150172681 7.918408817555381 
-36.535317664716985 -0.6383709922219731 7.26927046141148 
-36.238156967864924 -3.9722648949189976 7.745126830750216 
-36.20185787479985 -4.812218108784631 7.943931909021565 
-36.47461030398138 -2.5075150427997084 7.7662674577387065 
-36.61182488017828 -5.451036296544426 5.634910069621839 
-36.17783006836252 -5.365043484647309 6.090863684198133 
-33.50264095946424 -0.9489649290571265 4.607921136699169 
-36.96759565145458 -2.4605073192432663 5.438723906427171 
-33.652142942826664 -1.1349723257516153 4.366123849098884 
-36.637896334696734 -0.8683157161549726 7.653554991650736 
-34.285328654127404 -0.6034860120518948 6.172788956725178 
-37.34906580622059 -3.5734090031824364 8.879251774818933 
-36.39714017595762 -1.1837614573658142 6.3807367622229805 
-36.06256888500589 -5.0646915731551045 7.647931830974166 
-43.447254897134435 -4.3147266392706385 19.268126137604128 
-36.477857820147385 -1.8998166772525096 7.635722408691571 
-36.37443125252307 -2.2667033313163527 7.483565496037542 
-36.36528573181206 -2.2649347989944006 7.483423847412041 
-44.417699485187974 -2.0068150208065774 11.433184163692559 
-35.967956226734074 -5.155000538438356 7.063085624196823 
-36.40319884063632 -4.261443291837036 8.153943193338634 
-36.75730305876134 -1.467336722062841 8.002578313772403 
-32.21319010209717 0.3141835065876446 8.804253538900085 
-44.23030351239227 -4.672328261358419 18.77444592981513 
-38.10849909930778 -5.953314525461588 3.007188682904548 
-36.52438370014847 -5.64620155961354 5.7571277828980385 
-30.7676331498658 0.43863910964014785 8.856682576218603 
-42.7497707799932 -4.62771861397085 11.825125929314197 
-36.886117306489226 -2.0224057046500503 8.24073151322245 
-36.46138644893033 -4.06433492895753 8.17839513701157 
-44.235227269497976 -3.7373772068609163 18.760252206881972 
-37.59499857177434 -3.102494893420462 4.105939271639876 
-36.964690133816084 -2.8384932407030696 5.375041888270516 
-38.26360024942938 -6.751022674193595 2.5801110073458418 
-35.95310640312119 -5.027669319316651 7.1370344756794495 
-54.28063113991613 -7.21636415203718 18.67096515533568 
-36.350244943281716 -3.4754170088471747 7.8237512338181645 
-34.69258998679598 -2.202033605831505 4.260062902639248 
-33.39919784942492 -1.3010679863680554 4.799675813831037 
-36.60537580919697 -1.4098367347033758 7.6845919051753455 
-36.547588758453614 -0.8739397309570167 7.529470727744126 
-36.41890493469264 -4.439144360925509 8.235278093096873 
-36.60455784015345 -2.9963846751411136 8.151029499326874 
-36.3191717675889 -2.390127802792633 7.381608069480684 
-36.470311244745304 -1.7024230503405118 6.194438866119867 
-36.6098196232348 -2.256584930294407 7.9755047544278455 
-36.380786499552 -1.587177591775614 7.058105433905865 
-36.302141767734156 -4.384450204468451 8.006048487677397 
-38.164147152900526 -5.47947732189736 2.9747978809522237 
-33.47712599488699 -0.7416511061877911 4.664490226784686 
-33.39801601160816 -0.4761665479920181 4.965211415195846 
-36.972757321524995 -2.8816435607075555 5.304765777477144 
-36.58207867484115 -5.893354755100154 5.650993028679721 
-36.979871869880206 -2.749905648894198 5.34219699397682 
-36.986006899290075 -6.300437849010802 5.06578817297973 
-37.315832736767305 -1.148219777135119 8.501397252502173 
-36.686763957233524 -5.357121753935962 8.702531100093637 
-30.795677732064256 -1.6038178739842115 5.634597197629795 
-45.302277001913204 -3.356992217075712 3.1129463368849812 
-33.411564898052916 -0.7950542893398813 5.71818739836305 
-33.69795105470307 -0.5438512606018593 5.998621777009959 
-33.58004423925437 -0.5384826514755723 5.902533176800141 
-33.650345542558554 -1.6372621211407363 4.573556507596692 
-36.23820107442103 -3.6633551648944644 7.5349501314290634 
-33.53145812028293 -1.3337812867092413 4.606305787608569 
-36.24720475376385 -2.8933833584645345 7.1945954648356505 
-36.668800453346634 -6.180950088508217 5.539527560769407 
-36.5404388351452 -1.169890311366859 7.575323584326071 
-41.20671317468445 -5.047522428074302 20.82648408882364 
-35.01118809200577 -2.4277574197481293 2.725258026327417 
-36.523277425908034 -1.5118419659726303 7.576921426566059 
-34.37963507004401 -1.028621763641377 3.009420421156392 
-47.788617502673794 -12.129830790114937 2.2988766252507276 
-33.334880478850906 -0.8240361157033069 5.664986914204093 
-37.157542758667745 -2.2752395696465193 4.953860673441781 
-33.218007486468345 -1.0719987606575518 5.371521542431083 
-36.511919432609574 -1.6556365970633458 7.556990448918228 
-33.147715564577815 -0.5892340577423569 5.479114759088375 
-38.31316763832893 -6.5767721058591775 2.5802516013259478 
-42.009908847000254 -5.331880690724136 20.31009904744966 
-42.75902557114298 -4.696786118206009 11.750902979541763 
-33.41731362538517 -0.43931059884908574 4.97551820737845 
-37.310443841741915 -0.10429226726661067 16.48444854445875 
-42.73878192954018 -4.279784713612833 19.883422755359206 
-36.82950517142054 -3.801854483640083 8.568627539256376 
-38.393551921513044 -6.023830345782751 2.4240449915310194 
-57.491945797841844 -2.5790671115983184 18.974972110769755 
-36.43878774952746 -2.1332652499833777 7.656365665909952 
-36.411911209911864 -1.7210300616441634 6.742762038889694 
-36.420025553790225 -1.9633681441128985 7.424809361805913 
-36.82067869746645 -3.299578380134509 5.500453658521678 
-37.51195757500508 -3.0189494303444 4.271893541150163 
-38.20845619659026 -6.563831632733118 2.6997300554551558 
-33.42789450046352 -0.5252899185540443 4.899776853540082 
-36.46970737578298 -1.8433286701519798 7.55075155361687 
-36.486859989912375 -1.1247463751195532 7.254328072260506 
-33.36360620246695 -0.44371528664901305 5.0561555700186815 
-37.765027857373504 -6.633506343648605 3.4796724892612545 
-38.196127309676484 -5.443012994995364 3.0239980708474263 
-40.487805253919475 -3.9049918010806364 3.1825934432886527 
-36.56881058895493 -1.200300636826718 7.547386150618934 
-37.00895509977157 -1.4480520866839042 8.29973371800898 
-38.41667207567306 -6.879094448313376 2.4324980076095954 
-68.32256221514632 -5.012543014900975 26.343553635881193 
-57.56430583081034 -2.8974953694901355 19.038627716009827 
-37.049694741553694 -0.49818757298447824 8.185982532121443 
-38.568532632045525 -3.3643820395828694 2.1630336120206053 
-36.32773724406522 -2.2849507739780988 6.846015578526234 
-35.516550850367494 -2.6318966218582727 4.033571924652989 
-68.16467825490452 -5.8685383683277825 26.521330009388443 
-33.72420288823767 -0.8537345504611658 5.96199884891638 
-36.800406043338775 -1.9540573239344399 8.188095064707866 
-36.7058632167263 -2.3819251304420783 8.144436184008306 
-36.83387646877798 -3.0789040371243166 5.585484452240827 
-36.3277920221786 -3.1683266063277618 7.683536747832797 
-37.21051407935745 -6.422466178611597 4.571274602816246 
-36.68617863938544 -0.8247031013941335 7.674430788752481 
-36.90898164731578 -2.69310482000259 5.6496175589403705 
-38.552866234084604 -5.912787882372058 2.1868781654785607 
-36.85763412167347 -0.6161604373871663 7.914581854586736 
-33.56222754318693 -0.5361863011302912 4.600796749161937 
-36.228884478331324 -3.980636755653464 7.751827921141938 
-67.98053443880359 -5.257129008927429 25.803167508193134 
-37.64454375523593 -6.252390081454941 3.84067723993428 
-36.97002847902674 -2.881553641869951 5.306030213907789 
-67.92768229454363 -6.099697956057767 26.133880214425048 
-37.4253593838132 -5.175675082842919 4.429842883512016 
-38.608759078625084 -3.502398328244449 2.434483827571853 
-37.62888181445689 -3.1122435257606833 3.9941142449145204 
-37.21428159436503 -5.613518994759096 4.566154302447259 
-35.874721135425006 -1.2445524446465734 7.109265068483921 
-36.080906117905144 -4.053816520143818 6.874897322965275 
-37.284821617122205 -2.827285736181987 4.643326942752132 
-33.65000871508698 -1.2151721150896648 4.3761908149625555 
-43.05975814823587 -2.0334196769035966 11.616345505771328 
-34.29054589982201 -1.5824857668216783 3.187826240974978 
-37.09451154089194 -3.081517394999848 5.178494251189171 
-36.50098509475009 -2.2789083345406436 7.773631673047447 
-36.75897084722069 -1.7678635534363423 8.082566932106026 
-38.19397251156479 -5.445774883648962 2.894454326189681 
-36.67981004951693 -1.9394379964799118 5.75685366576031 
-36.651005713709026 -2.0161036315025758 5.722655243575687 
-37.55270972167303 -5.075466302420763 3.980588481820959 
-42.65775066991673 -5.155988521137722 11.716451144563138 
-36.558823589632965 -1.7689683958797797 5.928174552544881 
-36.73141527765563 -2.3467800921659014 8.179252764222674 
-36.683001411863216 -2.7790250710111053 8.208489963378732 
-36.499982837949126 -1.5699392787823836 7.540049575545851 
-36.19928279947809 -3.3741348659351056 6.549063526287611 
-36.596655013421014 -1.8921836453932332 5.773407328859079 
-37.33496244958552 -5.729014775525052 4.4895081488974995 
-33.37400796825546 -0.7390312119430522 5.693197848602878 
-52.125152200141294 -10.812450457978732 17.770815138035374 
-38.07663972721068 -5.182510161184793 3.1630804181390957 
-36.58430521340315 -0.8390488630753934 7.508734240699262 
-43.040054127694034 -1.9215072300559628 11.492174471500547 
-43.133380339816846 -1.420362217611319 11.507836754962234 
-33.4647634367007 -0.8762772852086993 5.828702080563666 
-33.47291567619385 -0.8776886067430372 5.829159541929464 
-33.4897969092126 -1.2804438371544222 4.65761460139197 
-35.998954493404966 -4.729199758357318 6.917740665393033 
-36.0801318821445 -5.313066151550803 7.835900524498626 
-36.08011687601771 -5.31114795489453 7.836041827746669 
-36.01098976259624 -4.984783304349352 7.602829542395284 
-36.1412857182752 -5.5312334790018465 8.063792767010646 
-36.66063439250041 -1.936221653386892 5.753530884308574 
-36.27713975258109 -4.789931026376759 8.081520057511113 
-36.50703589343232 -4.258623138173515 8.299452685301354 
-36.24814852133031 -4.032660007641338 7.837204916624231 
-33.36373844411925 -0.7110160136114843 5.724054457478907 
-36.17201657320783 -3.359099525067572 6.929378381713597 
-34.96137781650394 -2.1794194258137827 4.427349285320382 
-36.255971078820984 -5.608911545550594 8.255136164447691 
-34.17054127801928 -2.187220986546107 4.040196229677036 
-33.430072532602225 -0.8635723587746522 5.777775400354194 
-36.15223439786928 -5.911681156525409 5.299270429228542 
-33.69510780908492 -0.9199122014059604 5.920202338149842 
-33.44813952920052 -0.7614107989872352 5.793020442541973 
-33.53375294021575 -1.2616697356807798 5.275351794704882 
-36.61331557470318 -4.807949615235584 8.55019870094025 
-41.505501479943554 -6.839766894356389 19.965246965884432 
-47.99513144615606 -1.3530343901983608 14.09918937524396 
-37.095162746893564 -5.48063378432906 4.889444970885101 
-42.5257203072708 -6.4352093810347935 11.896095436003463 
-33.977202353643214 -0.7957696709827982 6.062644827980286 
-41.01164409324417 -8.174795350590001 2.475923407894733 
-35.943063897985624 -2.7871314655852517 3.6881417504360954 
-36.41100843925193 -1.3578472492600193 6.960988198848078 
-36.82117797718696 -0.49068219361540155 16.85048075223515 
-37.42667128826517 -5.583514175882598 4.557534762714106 
-33.54483693748603 -0.7090385767100642 4.631586572530651 
-37.06582733238353 -2.4063462775896243 5.26956719189257 
-38.65107613058236 -5.932431621443156 1.9749050790653797 
-36.481489358417 -6.104799435688841 5.7331587598479175 
-36.40854552610648 -2.146715819011539 7.4879013016641665 
-36.40876754789848 -2.268671199401842 7.5238178419510575 
-38.83769431120671 -6.630079535532158 1.4849087453358436 
-36.9576648018221 -3.0994696396445827 5.296938652660451 
-36.35053808637697 -1.8964278523727867 6.671469099888633 
-41.13698091202966 -6.162407555696302 20.67545009887425 
-34.92018032770027 -2.219495268236159 4.426892957568974 
-37.615148568833774 -6.377552091552052 3.8001095344530285 
-36.42529294245749 -1.6892964738302343 6.305848357907465 
-37.109774318360266 -3.07590468378382 5.1926546744376125 
-37.60753980493811 -3.5454562490953236 4.185372078355144 
-38.82299312818484 -5.707725850553759 21.553521224139907 
-36.51106702770846 -3.003818279180175 7.999341210010073 
-37.003118688945506 -3.3604257798673522 8.63814457308802 
-36.06011277694439 -5.002017962516717 7.670515406784482 
-37.494173100578784 -3.0020778387213074 4.195942022375526 
-36.37989057938684 -3.153769129060847 7.804327453182438 
-37.717170240785094 -6.548166229840584 3.59383727337039 
-37.09377870568655 -2.4126183370795253 5.224830370253677 
-36.188125513297734 -3.4928261435167913 7.245482951906567 
-36.34588239592027 -4.32468086446367 8.072334779160123 
-37.15497251479903 -3.1378478475982536 4.125172522476809 
-34.36676433059711 -1.922884396567503 3.2286929748557824 
-36.233389583299235 -2.951349948669292 7.220090096125318 
-36.37345387964398 -2.373290122934513 6.221126982698536 
-35.99399752914515 -4.935159637582009 7.1411664349425195 
-44.6481594662319 -4.254558250228605 18.647902998085648 
-33.145686025167144 -0.782098370306052 5.209613563917969 
-36.49236908186393 -2.2415092235798992 7.7372524412212655 
-36.4624750061658 -0.7873969177503977 6.772704630626535 
-38.81264445337739 -3.428885312617231 1.8043625458629151 
-35.97694136314835 -5.427307311999539 7.554502878031904 
-36.22988493141241 -5.240090195909013 8.125101593528441 
-39.09563277460224 -3.5789044460731105 1.2945017685252438 
-39.09563277460224 -3.5789044460731105 1.2945017685252438 
-40.025350852511046 -7.410302260697275 10.83072804119773 
-37.03189284280214 -0.871249833602036 8.233658512993166 
-36.34740509786003 -1.8248559712666923 6.755810159175724 
-36.76435888979936 -1.0431797619723566 7.893486197201284 
-36.21759337602392 -5.157990214002391 5.948532125995797 
-38.12693115161023 -6.291512779824513 9.665177209665984 
-40.07257988375139 -7.181194466131577 10.821836708188926 
-36.953447405605964 -6.440580922246803 5.022671159617573 
-36.544592474703585 -6.132732154817184 5.665945963819617 
-37.32275559445031 -5.5819882255114415 4.496979919650265 
-36.5770970896976 -5.543201387327867 5.73625820584666 
-36.639199979059924 -6.09557110359874 5.523536154855364 
-37.59257377208638 -2.9428700449919027 4.542460029242399 
-33.50861438800629 -1.5524323698001332 4.40781501355044 
-37.34203327702424 -6.327570912940011 4.2228006291150635 
-33.95095869136385 -1.7657654637267415 3.952984307371487 
-43.03877490343999 -2.028826252907513 11.457237989922 
-37.10140997526035 -2.7205032405983633 5.043837444670018 
-37.25575480559404 -3.013831634273318 4.781317892868863 
-38.40941910234686 -5.848640261031806 2.548179767006175 
-43.14142981310729 -2.3289074505283764 11.57722724393902 
-33.3123479454822 -0.4150398693780062 5.3670789932554825 
-36.572109023223646 -0.46817354909633124 7.288797206455129 
-36.45247043929589 -0.4872743042272276 6.951836020237209 
-36.257105821605975 -5.726318658163782 8.268893367414684 
-42.27060498406296 -6.655824920461579 11.724952599837437 
-36.90350177851489 -3.043369215126983 5.442770582671365 
-37.85259730760631 -3.3528618153640597 3.833136092943036 
-40.70831871855259 -4.8762559167158965 10.630869242886007 
-43.05378712693472 -1.807694332084294 11.52284372174131 
-36.87020351231363 -0.485275759665174 7.874090892791791 
-38.4313032525019 -5.8314975656433194 2.6126981868191876 
-37.41576744534562 -2.862447320146356 4.773731185627405 
-39.031688494638715 -0.7121203900838777 15.132979148725504 
-36.286301438982335 -5.587975543188304 8.293159328855992 
-37.06852078127601 -2.73628179380054 5.206229145285768 
-37.61184334697023 -6.517208783969051 3.797987481208672 
-37.59008623156964 -6.505719758741214 3.800921645796855 
-52.4031801160063 -12.655058057961117 18.125378900649338 
-37.020718194757805 -2.413479786637412 5.298129147607241 
-38.03751801568082 -6.559078068101253 3.012350741449815 
-35.97253579266739 -5.491393296293093 6.551847016463313 
-36.85239589510314 -0.5030981414457516 7.908206957264028 
-34.36549752715027 -1.9073780468023056 3.240586303197688 
-40.09913159521664 -7.13498688423825 10.833559956859055 
-36.39210747513965 -6.138049114933074 5.851010723421645 
-37.10855734579006 -5.210840799111203 4.9514312934369045 
-36.52675843230223 -2.0210489899774684 5.898634477207814 
-40.38840474478325 -1.6693596841320941 10.173207841709846 
-33.31605791846056 -0.5598363265234179 5.0394752572744395 
-42.295213140903904 -8.012213195634263 12.255140788935783 
-33.64154558176644 -1.5763682924730045 4.502152807462778 
-33.25013816343869 -1.059182317766922 5.452266241708301 
-36.25685266247427 -3.4213343124930553 7.52819661013212 
-37.661990457444865 -0.6183293833229406 8.641228279487635 
-36.546652346831735 -0.5433907838799428 7.281433339371972 
-36.76942133430413 -5.612957381391066 8.786411497334903 
-36.41554279325141 -1.3870102356489813 6.99212520456188 
